NCOLS 124 
NROWS 71 
XLLCORNER 100975.31133281 
YLLCORNER 3988829.71758 
CELLSIZE 4219.2230169468 
NODATA_value -9999 
-9999.000000000000000 -9999 -9999 -9999 -9999 -9999 -9999 -9999 -9999 -9999 -9999 -9999 -9999 -9999 -9999 -9999 -9999 -9999 -9999 -9999 -9999 -9999 -9999 -9999 -9999 -9999 -9999 -9999 -9999 -9999 -9999 -9999 -9999 -9999 -9999 -9999 -9999 -9999 -9999 -9999 -9999 -9999 -9999 -9999 -9999 -9999 -9999 -9999 -9999 500.375 459.9 418.894736842105 404.44 475.571428571429 -9999 -9999 -9999 -9999 -9999 -9999 -9999 -9999 -9999 -9999 -9999 -9999 -9999 -9999 -9999 -9999 -9999 -9999 -9999 -9999 -9999 -9999 -9999 -9999 -9999 -9999 -9999 -9999 -9999 -9999 -9999 -9999 -9999 -9999 -9999 -9999 -9999 -9999 -9999 -9999 -9999 -9999 -9999 -9999 -9999 -9999 -9999 -9999 -9999 -9999 -9999 -9999 -9999 -9999 -9999 -9999 -9999 -9999 -9999 -9999 -9999 -9999 -9999 -9999 -9999 -9999 -9999 -9999 -9999 -9999
-9999 -9999 -9999 -9999 -9999 -9999 -9999 -9999 -9999 -9999 -9999 -9999 -9999 -9999 -9999 -9999 -9999 -9999 -9999 -9999 -9999 -9999 -9999 -9999 -9999 -9999 -9999 -9999 -9999 -9999 -9999 -9999 -9999 -9999 -9999 -9999 -9999 -9999 -9999 -9999 -9999 -9999 -9999 -9999 -9999 -9999 -9999 -9999 393.5 395.117647058824 400.6 415.4 461.16 534.76 496.857142857143 421.227272727273 -9999 -9999 -9999 -9999 -9999 -9999 -9999 -9999 -9999 -9999 -9999 -9999 -9999 -9999 -9999 -9999 -9999 -9999 -9999 -9999 -9999 -9999 -9999 -9999 -9999 -9999 -9999 -9999 -9999 -9999 -9999 -9999 -9999 -9999 -9999 -9999 -9999 -9999 -9999 -9999 -9999 -9999 -9999 -9999 -9999 -9999 -9999 -9999 -9999 -9999 -9999 -9999 -9999 -9999 -9999 -9999 -9999 -9999 -9999 -9999 -9999 -9999 -9999 -9999 -9999 -9999 -9999 -9999
-9999 -9999 -9999 -9999 -9999 -9999 -9999 -9999 -9999 -9999 -9999 -9999 -9999 -9999 -9999 -9999 -9999 -9999 -9999 -9999 -9999 -9999 -9999 -9999 -9999 -9999 -9999 -9999 -9999 -9999 -9999 -9999 -9999 -9999 -9999 -9999 -9999 -9999 -9999 -9999 -9999 -9999 -9999 -9999 -9999 -9999 -9999 426.6 429.545454545455 450.04 448.32 416.68 445.6 529.28 598.12 485.32 410.5 -9999 -9999 -9999 -9999 -9999 -9999 -9999 -9999 -9999 -9999 -9999 -9999 -9999 -9999 -9999 -9999 -9999 -9999 -9999 -9999 -9999 -9999 -9999 -9999 -9999 -9999 -9999 -9999 -9999 -9999 -9999 -9999 -9999 -9999 -9999 -9999 -9999 -9999 -9999 -9999 -9999 -9999 -9999 -9999 -9999 -9999 -9999 -9999 -9999 -9999 -9999 -9999 -9999 -9999 -9999 -9999 -9999 -9999 -9999 -9999 -9999 -9999 -9999 -9999 -9999 -9999 -9999
-9999 -9999 -9999 -9999 -9999 -9999 -9999 -9999 -9999 -9999 -9999 -9999 -9999 -9999 -9999 -9999 -9999 -9999 -9999 -9999 -9999 -9999 -9999 -9999 -9999 -9999 -9999 -9999 -9999 -9999 -9999 -9999 -9999 -9999 -9999 -9999 -9999 -9999 -9999 -9999 -9999 -9999 -9999 -9999 -9999 459 444.888888888889 450.291666666667 483.8 473.04 482.36 427.48 447.08 482.36 540.36 511.08 439 442.7 485.5 -9999 -9999 -9999 -9999 -9999 -9999 -9999 -9999 -9999 -9999 -9999 -9999 -9999 -9999 -9999 -9999 -9999 -9999 -9999 -9999 -9999 -9999 -9999 -9999 -9999 -9999 -9999 -9999 -9999 -9999 -9999 -9999 -9999 -9999 -9999 -9999 -9999 -9999 -9999 -9999 -9999 -9999 -9999 -9999 -9999 -9999 -9999 -9999 -9999 -9999 -9999 -9999 -9999 -9999 -9999 -9999 -9999 -9999 -9999 -9999 -9999 -9999 -9999 -9999 -9999
-9999 -9999 -9999 -9999 -9999 -9999 -9999 -9999 -9999 -9999 -9999 -9999 -9999 -9999 -9999 -9999 -9999 -9999 -9999 -9999 -9999 -9999 -9999 -9999 -9999 -9999 -9999 -9999 -9999 -9999 -9999 -9999 -9999 -9999 -9999 -9999 -9999 -9999 -9999 -9999 -9999 -9999 -9999 -9999 464.5 459.4 462.24 505.56 506.6 495.56 517.84 511.48 498.96 506.32 496.32 460.64 464.36 465.44 475.76 485.153846153846 495.5 -9999 -9999 -9999 -9999 -9999 -9999 -9999 -9999 -9999 -9999 -9999 -9999 -9999 -9999 -9999 -9999 -9999 -9999 -9999 -9999 -9999 -9999 -9999 -9999 -9999 -9999 -9999 -9999 -9999 -9999 -9999 -9999 -9999 -9999 -9999 -9999 -9999 -9999 -9999 -9999 -9999 -9999 -9999 -9999 -9999 -9999 -9999 -9999 -9999 -9999 -9999 -9999 -9999 -9999 -9999 -9999 -9999 -9999 -9999 -9999 -9999 -9999 -9999
-9999 -9999 -9999 -9999 -9999 -9999 -9999 -9999 -9999 -9999 -9999 -9999 -9999 -9999 -9999 -9999 -9999 -9999 -9999 -9999 -9999 -9999 -9999 -9999 -9999 -9999 -9999 -9999 -9999 -9999 -9999 -9999 -9999 -9999 -9999 -9999 -9999 -9999 -9999 -9999 -9999 -9999 -9999 490 497.666666666667 489.16 489.96 506.8 521.68 534.72 536.6 534.68 511.04 498.04 529.76 534.2 515.84 519.8 493.04 508.36 508.863636363636 -9999 -9999 -9999 -9999 -9999 -9999 -9999 -9999 -9999 -9999 -9999 -9999 -9999 -9999 -9999 -9999 -9999 -9999 -9999 -9999 -9999 -9999 -9999 -9999 -9999 -9999 -9999 -9999 -9999 -9999 -9999 -9999 -9999 -9999 -9999 -9999 -9999 -9999 762 -9999 -9999 -9999 -9999 -9999 -9999 -9999 -9999 -9999 -9999 -9999 -9999 -9999 -9999 -9999 -9999 -9999 -9999 -9999 -9999 -9999 -9999 -9999 -9999
-9999 -9999 -9999 -9999 -9999 -9999 -9999 -9999 -9999 -9999 -9999 -9999 -9999 -9999 -9999 -9999 -9999 -9999 -9999 -9999 -9999 -9999 -9999 -9999 -9999 -9999 -9999 -9999 -9999 -9999 -9999 -9999 -9999 -9999 -9999 -9999 -9999 -9999 -9999 -9999 -9999 554 510.25 534.05 550.28 588.72 533.84 502.16 544.2 555.68 558.2 547.6 522.32 539.64 562.44 567.8 590.04 581.16 546.64 557.4 544.44 535.1 552.25 -9999 -9999 -9999 -9999 -9999 -9999 -9999 -9999 -9999 -9999 -9999 -9999 -9999 -9999 -9999 -9999 -9999 -9999 -9999 -9999 -9999 -9999 -9999 810 932 882 -9999 -9999 -9999 -9999 806 -9999 -9999 -9999 659 708.25 742.666666666667 771.85 833.470588235294 1017.70833333333 1224.14285714286 -9999 -9999 -9999 -9999 -9999 -9999 -9999 -9999 -9999 -9999 -9999 -9999 -9999 -9999 -9999 -9999 -9999 -9999 -9999 -9999
-9999 -9999 -9999 -9999 -9999 -9999 -9999 -9999 -9999 -9999 -9999 -9999 -9999 -9999 -9999 -9999 -9999 -9999 -9999 -9999 -9999 -9999 -9999 -9999 -9999 -9999 -9999 -9999 -9999 -9999 -9999 -9999 -9999 -9999 -9999 -9999 -9999 -9999 -9999 -9999 -9999 535.846153846154 552.16 607.84 570.08 581.28 575.56 551.28 551.68 577.32 586.64 545.88 524.68 565.92 581.48 590.24 610.92 605.72 574.64 603.48 578.48 594.04 596.16 585.285714285714 612 -9999 -9999 -9999 -9999 -9999 -9999 -9999 -9999 -9999 -9999 -9999 -9999 -9999 -9999 -9999 -9999 -9999 945.25 873 -9999 -9999 757.25 823 801.05 781.545454545455 797 828.8 842.615384615385 864.411764705882 801.5 793.555555555556 767.235294117647 734.789473684211 755.72 748.92 809.04 961.12 989.64 1107.3 -9999 -9999 -9999 -9999 -9999 -9999 -9999 -9999 -9999 -9999 -9999 -9999 -9999 -9999 -9999 -9999 -9999 -9999 -9999 -9999
-9999 -9999 -9999 -9999 -9999 -9999 -9999 -9999 -9999 -9999 -9999 -9999 -9999 -9999 -9999 -9999 -9999 -9999 -9999 -9999 -9999 -9999 -9999 -9999 -9999 -9999 -9999 -9999 -9999 -9999 -9999 -9999 -9999 -9999 -9999 -9999 -9999 -9999 -9999 -9999 -9999 573.333333333333 581.12 568.2 604.64 583.48 584.36 584.6 604.28 602.92 600.48 570.08 567.72 583.04 595.28 620.48 641.52 623.2 643.08 621.04 606.96 659.44 653.36 618.08 607.142857142857 632 -9999 -9999 802 1055 -9999 -9999 -9999 -9999 -9999 -9999 -9999 994.125 898.2 936.454545454545 705.333333333333 707 947.615384615385 877.117647058824 756 1067.33333333333 758.666666666667 750.52 758.68 665.84 713.44 819.88 832.8 797.36 755.25 707.92 659.72 680.44 717.32 736.64 969.24 781.68 888.72 815.133333333333 933 -9999 -9999 -9999 -9999 -9999 -9999 -9999 -9999 -9999 -9999 -9999 -9999 -9999 -9999 -9999 -9999 -9999 -9999 -9999
-9999 -9999 -9999 -9999 -9999 -9999 -9999 -9999 -9999 -9999 -9999 -9999 -9999 -9999 -9999 -9999 -9999 -9999 -9999 -9999 -9999 -9999 -9999 -9999 -9999 -9999 -9999 -9999 -9999 -9999 -9999 -9999 -9999 -9999 -9999 -9999 -9999 -9999 -9999 -9999 -9999 561.571428571429 600.12 610.24 589.72 562.4 574.8 617.76 658.36 659.52 634.84 607.32 620.2 622 633.72 635.48 658.8 656.08 646.6 635.52 641.64 690.6 690.64 650.16 633.92 648.181818181818 649.727272727273 595 650.842105263158 801.84 752.8 736.166666666667 733.7 755 612.8 622.8 826.285714285714 722.285714285714 718.36 720.2 814.12 922.12 875.32 755 741.44 863.56 735.64 693.24 639.36 574.84 660.08 706.56 707.2 738.16 730.96 729.64 645.28 639.76 688.88 681.76 912.24 722 804.12 959.04 1309.52 1455.66666666667 -9999 -9999 -9999 -9999 -9999 -9999 -9999 -9999 -9999 -9999 -9999 -9999 -9999 -9999 -9999 -9999 -9999 -9999
-9999 -9999 -9999 -9999 -9999 -9999 -9999 -9999 -9999 -9999 -9999 -9999 -9999 -9999 -9999 -9999 -9999 -9999 -9999 -9999 -9999 -9999 -9999 -9999 -9999 -9999 -9999 -9999 -9999 -9999 -9999 -9999 -9999 -9999 -9999 -9999 -9999 -9999 -9999 -9999 -9999 570.416666666667 607.36 618.08 567.96 550.24 541.28 590.52 627.32 598.04 658.92 678.44 638.72 601.28 612 629.04 700.88 686.16 667.96 676.16 701.04 723.24 706.16 667.6 674.52 692.8 664.96 636.434782608696 571 559.76 604.16 661.28 662.32 671.92 633.24 453.68 655.28 598.28 614.56 711.92 788 759.32 746.6 722.16 622.64 640.4 636.76 615.28 574.08 661 684.12 703.96 672.48 700 709.4 649.2 582.44 607.16 670.56 759.8 742.32 833.56 1079.32 1218.28 1208.44 1384.77777777778 -9999 -9999 -9999 -9999 -9999 -9999 -9999 -9999 -9999 -9999 -9999 -9999 -9999 -9999 -9999 -9999 -9999 -9999
-9999 -9999 -9999 -9999 -9999 -9999 -9999 -9999 -9999 -9999 -9999 -9999 -9999 -9999 -9999 -9999 -9999 -9999 -9999 -9999 -9999 -9999 -9999 -9999 -9999 -9999 -9999 -9999 -9999 -9999 -9999 -9999 -9999 -9999 -9999 -9999 -9999 -9999 -9999 -9999 -9999 592.5 609.16 589.44 549.84 524.32 520.04 521.28 546.48 553.48 668.32 774.48 770.04 655.96 575.92 588.52 673.24 688.64 659.72 667 690.8 673.68 716.4 732.44 755.72 751.72 746.36 768.68 692.16 548.12 643.24 706.72 648.36 645.32 619.4 451.08 603.08 638.28 589.28 591 602.68 586.96 646.88 628.96 520.04 552.12 515.16 527.32 525.64 652.8 690.12 643.8 747.96 739.32 573.92 504.08 570.16 815.72 981.56 1045.76 774.24 833.68 1165.6 1357.68 1319.8 1369.15384615385 943.5 -9999 -9999 -9999 -9999 -9999 -9999 -9999 -9999 -9999 -9999 -9999 -9999 -9999 -9999 -9999 -9999 -9999
-9999 -9999 -9999 -9999 -9999 -9999 -9999 -9999 -9999 -9999 -9999 -9999 287 358.4 413 -9999 -9999 -9999 -9999 -9999 -9999 -9999 -9999 -9999 -9999 -9999 -9999 -9999 -9999 -9999 -9999 -9999 -9999 -9999 -9999 -9999 -9999 -9999 -9999 -9999 -9999 -9999 639.647058823529 622.08 576.52 564.4 636.2 589.24 510.4 496 556.28 670.88 711.44 719.56 646.72 538 542.6 637.96 662.52 653.92 698.68 634.16 648.36 736.76 739.64 751.12 718.84 748.84 679.08 539.04 720.36 692 647.52 629.64 508.76 425.04 563.08 661.92 514.16 551.52 478.44 555.6 557.2 509.2 512.6 509.8 449.92 479.44 549.64 599.08 627.52 659.6 717.96 581.68 501.12 526 699.84 879.8 938.04 1019.16 792.88 1075.76 1286.96 1391.72 1351.16 1128.32 775.375 -9999 -9999 -9999 -9999 -9999 -9999 -9999 -9999 -9999 -9999 -9999 -9999 -9999 -9999 -9999 -9999 -9999
-9999 -9999 -9999 -9999 -9999 -9999 -9999 -9999 -9999 -9999 -9999 -9999 261.416666666667 371.32 461.086956521739 514.375 -9999 -9999 -9999 -9999 -9999 -9999 -9999 -9999 -9999 -9999 -9999 -9999 -9999 -9999 -9999 -9999 -9999 -9999 -9999 -9999 515 486.428571428571 447.75 -9999 -9999 432 572.263157894737 635.36 643.2 681.4 697.56 630.36 568.72 578.04 507.44 520.92 619.52 642.8 730.16 663.2 524.12 513.48 574.84 658.08 705.8 701.6 603.12 708.52 694.64 641.04 697.36 745.52 691.4 459.48 585.88 620.96 654.64 531.96 467.68 545.84 647.96 557.28 474.4 436.68 445.56 437.4 478 490.52 476.2 379.88 441.2 534.92 595.68 627 741.16 715.24 670.08 613.96 515.6 746 912.08 916.24 1051.52 1012.84 845.4 1323.92 1303.52 1392.52 1185.6 1062.125 -9999 -9999 -9999 -9999 -9999 -9999 -9999 -9999 -9999 -9999 -9999 -9999 -9999 -9999 -9999 -9999 -9999 -9999
-9999 -9999 -9999 -9999 -9999 -9999 -9999 -9999 -9999 -9999 -9999 -9999 293.222222222222 305.36 387.96 421 -9999 -9999 -9999 -9999 -9999 -9999 -9999 -9999 -9999 -9999 -9999 -9999 -9999 -9999 -9999 -9999 -9999 -9999 619.666666666667 570.772727272727 537.6 525.64 487.75 -9999 -9999 400.444444444444 440.44 481.44 539.4 692.2 611.64 667.04 703.96 726.88 674.4 558.44 534.84 631 597.72 572.72 607.96 515.52 499.36 598.16 596.68 606.12 589.48 557.64 540.72 522.16 609.4 680.52 689.28 572.04 471.36 543.24 578.16 453.48 443.32 636.12 560.36 418.24 395.84 389.2 348.64 403 463.92 466.64 371.28 375.96 474.76 582.32 686.28 675 614.64 609.08 539.16 539.44 628.48 815.2 779.52 844.96 982.88 809.68 907.4 1311.32 1265.84 1244.32 1361.4 1246.29166666667 -9999 -9999 -9999 -9999 -9999 -9999 -9999 -9999 -9999 -9999 -9999 -9999 -9999 -9999 -9999 -9999 -9999 -9999
-9999 -9999 -9999 -9999 -9999 -9999 -9999 -9999 -9999 -9999 -9999 379.25 390.44 365.76 331.72 408.52 456.764705882353 491.133333333333 517.230769230769 523.75 -9999 -9999 -9999 -9999 -9999 -9999 -9999 -9999 -9999 -9999 -9999 -9999 -9999 532.5 681 708.36 609.36 579.210526315789 540 497.916666666667 468.142857142857 538.44 389.28 449.16 414.8 571.16 521.76 561.04 673.84 671.2 689.84 629.72 559.4 466.08 544.28 566.32 544.84 554.04 430.24 614.16 597.24 553.56 523.4 469.2 359.04 426.4 462.8 503.8 539.44 514.28 383.6 368.8 333.84 311.32 494.04 580.4 409.84 357.12 372.72 348.64 379.24 435.08 409.76 333.4 349.76 425.32 555.96 554.72 510.24 496.12 475.44 488.36 581.4 739.2 758.68 672.48 941.36 1160.48 1073.48 779.64 1101.4 1394.04 1360.2 1448.28 1484.76 1214.9 -9999 -9999 -9999 -9999 -9999 -9999 -9999 -9999 -9999 -9999 -9999 -9999 -9999 -9999 -9999 -9999 -9999 -9999
-9999 -9999 -9999 -9999 -9999 -9999 -9999 -9999 304 378.5 -9999 450.1 463.84 404.68 373.4 339.92 493.04 554.24 595.8 612.454545454545 -9999 -9999 746 828.5 933 -9999 -9999 -9999 -9999 -9999 -9999 -9999 -9999 448.5 472.44 582.96 709.2 674.086956521739 593.333333333333 558.125 497.32 417.32 363.32 508.6 365.88 465.4 526.52 462.72 557.68 535 621.24 741.28 617.48 541.36 477.64 577.2 472.32 462.04 379.4 364.4 456.16 485.52 511.4 395.48 292.68 325.6 330.92 363.68 359.92 330.64 510.36 466.12 463.64 538.64 469.24 347 345.08 313.84 375.4 329.36 387.12 445.64 399.32 311.2 362.76 363.72 396.76 423.2 432.56 454.24 482.16 549.24 696.52 694.68 639.12 933.76 1200.28 1412.96 985.8 783.84 1367.88 1470.04 1614.36 1496.8 1299.57142857143 1213 -9999 -9999 -9999 -9999 -9999 -9999 -9999 -9999 -9999 -9999 -9999 -9999 -9999 -9999 -9999 -9999 -9999 -9999
-9999 -9999 -9999 -9999 -9999 -9999 293.25 305.222222222222 330.4 397.4 410.4 464.304347826087 509.08 531.8 507.84 377.48 406.2 516.6 624.64 694.48 599.785714285714 537.7 657.153846153846 683.92 772.8 -9999 -9999 -9999 -9999 -9999 -9999 -9999 -9999 393.333333333333 461.32 452.76 584.2 669.4 706.48 626.36 552.24 458 415.88 342.96 318.72 339.96 438.24 456.12 424.64 476.2 590.88 694.56 676.52 663.16 537.76 494.92 575.84 510.2 445.72 266.84 374.16 410.48 408.12 335.4 261.32 281.12 294.92 305.72 267.68 271.48 264.76 252.88 276.44 316.8 315.12 307.8 319 316.96 337.28 307.4 352.28 414.6 315.04 339.52 409.16 501.36 595.68 648.56 612.28 654.48 612.24 597.48 612.48 531.84 570.08 966.2 1294.36 1348.36 810.76 1215.4 1545.52 1664.08 1490.32 1363.28 1548.22222222222 1622 -9999 -9999 -9999 -9999 -9999 -9999 -9999 -9999 -9999 -9999 -9999 -9999 -9999 -9999 -9999 -9999 -9999 -9999
-9999 -9999 -9999 -9999 -9999 -9999 213.652173913043 214.52 244.4 266.08 272.04 299.36 319.68 463.56 602.32 551.4 433.04 477.36 554.24 551.52 511.52 465.76 460.2 557.24 568.416666666667 599.5 -9999 -9999 -9999 662 546 600 405.888888888889 411.588235294118 560.64 573.92 504.12 585.92 665.92 607.96 637.88 620.36 572.56 448.36 355.64 314.52 359.56 352.08 431.8 527.04 586.36 541.2 520.28 524.44 563.64 517.32 577.56 498.92 395.2 297.16 387.52 311.88 267.76 226 196.72 211.56 245.8 255.4 216.8 214 219.56 217.92 208.76 216.76 231.24 240.68 258.76 274.2 291.68 358.56 367.4 319.84 347.08 494.84 593.28 674.64 723.76 758.96 739 678.96 561.72 460.8 448.4 548.56 865.56 1095.84 1342.44 890.04 971.68 1432.76 1718.68 1649.04 1541.4 1655.92 1750.6 1639.95652173913 1495.08333333333 1358 1336.5 -9999 -9999 -9999 -9999 -9999 -9999 -9999 -9999 -9999 -9999 -9999 -9999 -9999 -9999 -9999
-9999 -9999 -9999 -9999 -9999 185 181 215.44 270.16 297.92 336.08 387.2 415.24 444.68 589.68 496.88 517.44 623.76 612.04 506.36 431.88 404.24 435 505.96 526.28 617.36 544.72 477.533333333333 457.666666666667 547.272727272727 670.12 653.56 510.88 387.32 492.44 574.36 627.08 564.56 535.28 623.52 661.84 656.08 591.4 559.56 516.72 395.88 270.08 302.12 328.12 414.72 472.96 474.28 475.8 431.04 462.68 461.68 495.36 498.92 358.4 249.72 179.8 241.32 248.32 178.04 155.76 226.16 195.44 171.76 199.32 245 266.36 265.48 249.56 267.2 252.04 260.76 297.24 261.92 315.88 307.08 281.92 308.64 409.56 570.92 699.52 694.6 662.52 615.16 598.76 558.56 501.8 442.88 516.92 593.16 797.44 1017.32 1101.6 908.92 1315.6 1706.16 1702.76 1649.48 1652.96 1717.84 1636.68 1508.24 1395.92 1328.08 1232.73913043478 1247 -9999 -9999 -9999 -9999 -9999 -9999 -9999 -9999 -9999 -9999 -9999 -9999 -9999 -9999
-9999 -9999 -9999 -9999 -9999 192.692307692308 211.96 280.68 333.08 353.04 357.24 360.12 449.2 503.28 617.36 605.68 593.16 706.12 712.84 705.44 615.76 486.52 365.88 383.72 472.36 557.64 594.24 494.68 455 484.92 545.04 576.2 453.84 349.84 476.28 573.04 561 555.4 481.32 638.08 733.6 640.64 513.32 438.08 450.12 468.4 444.96 332.52 347.76 433.64 487.64 495.72 341.76 352.12 420.4 393.92 523.24 321.84 289.68 237.88 180.56 148.12 153.56 143.04 160.76 226 267.56 257 226.48 288.4 333.24 344.32 310.24 296.88 315.96 324.88 340.04 304.4 282.12 299.84 297.48 309.36 332.44 379.76 441.48 441.32 438.16 417.92 426.52 448.44 415.96 428.88 525.56 550.6 644.04 919.32 1057.24 1265.08 1427.04 1664.04 1754.32 1744.12 1435.56 1661.52 1351.56 1376.68 1198.56 1239.08 1139 1113.83333333333 1173.5 -9999 -9999 -9999 -9999 -9999 -9999 -9999 -9999 -9999 -9999 -9999 -9999 -9999
-9999 -9999 -9999 -9999 174 201.714285714286 253.4 317.88 374.48 504.88 468.8 450.28 460.6 570.84 476.16 534.4 580.44 649.84 601.52 567.44 589.8 609.92 511.88 364.68 349.68 383.68 434.84 473.84 445.92 455.96 483.24 425.4 367.72 367.12 434.32 482.6 468.48 469.96 579.12 614.28 654.28 566.56 531.36 403.64 358.08 380.56 387.8 375.84 250.2 319.52 368.52 356.8 326.96 372.16 399.72 418.32 331.44 177.24 135.28 127 142.16 148.8 182.08 169.04 191.2 272.8 298.44 297.24 278.8 255.8 366.6 368.4 366.8 303.32 271.32 306.24 362.52 319.76 316.36 368.12 342.76 345.8 372.56 364.76 338.2 331.28 361.56 363.2 384.28 381.8 439.96 494 560.6 651.72 753.24 1094.68 1227.4 1530.24 1652.92 1693.2 1794.44 1505.72 1238.4 1587.32 1351.32 1358.64 1192.44 1096.48 1050.44 1136.68 1288.05882352941 1225.25 -9999 -9999 -9999 -9999 -9999 -9999 -9999 -9999 -9999 -9999 -9999 -9999
-9999 -9999 -9999 152.5 192.176470588235 217.36 268.16 370.68 422.24 416.44 345.48 365.76 412.6 432.48 347.08 441 375.96 396.44 386.96 500.08 495.92 515.28 596.88 523.24 422.64 303.4 363.16 457.76 413.84 414.56 429.52 385.72 265.12 257.84 410.72 428.12 427.84 385.04 463.68 511.96 538.28 477.76 479.4 407.32 255.28 224.48 302.52 292.64 215.48 235.6 236.6 226.8 199.24 269.52 169.8 145.04 115.44 108.84 113.56 156.96 203.72 207.88 206.36 215 271.24 317.36 301.48 338.32 314.92 300.48 386.72 387.92 380.64 323.76 329.64 334.52 412.32 381.6 328.16 393.76 413.36 452.6 453.08 456.56 434.16 437.92 441.32 455.16 452.48 451.08 424.32 507.84 623.12 783.88 1246.52 1299 1397.44 1428.8 1837.32 1419.2 1535.08 1152.92 1154.36 1191.36 1239.48 1193.24 1037.4 1018.24 1026.48 1098.68 1193.88 1172.5652173913 1099.73913043478 1059.22222222222 954.142857142857 942.4 -9999 -9999 -9999 -9999 -9999 -9999 -9999 -9999
-9999 -9999 141.25 176.227272727273 189.08 206.28 248.24 268.04 262 267.4 270.4 288.28 314.28 340.48 272.88 325.96 352.44 386.88 325.92 382.64 406.52 465.6 507.84 410.32 351.6 311 324.32 446.64 438.12 401.32 397.52 378.88 235.16 121.84 331.12 382.32 362.92 332.04 338.08 383.64 394.32 374.52 382.72 359.88 313.56 269.12 237.12 195.92 179.12 201.52 161.56 143.04 158.08 108.16 88.64 95.12 107.28 154.84 199.04 232.84 252.52 237.08 257.32 271.72 249.6 299.44 326.76 338.48 291.76 291.04 324.8 350.68 362.48 387.92 379.64 412.64 460.2 402.16 360.4 409.76 496.08 546.2 563.08 595.84 568.72 511.6 749.28 612.72 562.92 475.12 449.08 555.12 647.88 744.68 1387.04 1524.84 1438.52 1550.2 1659.84 1295.8 1423.44 1200.52 1137.72 1189.12 1109.96 1250.12 994.96 1021.92 1083.92 1105.64 1146.96 1179.04 1168.72 1012.36 831.8 783.4375 -9999 -9999 -9999 -9999 -9999 -9999 -9999 -9999
-9999 -9999 156.260869565217 180.28 159.64 194.92 198.8 213.28 219.92 245.6 251.96 228.68 268 293.04 227.32 229.24 272.8 288.32 333.8 463.48 513.32 468.08 474 440.88 422.24 387.6 265.92 356.92 395.88 377.84 466.76 422.96 352.88 180.28 147.88 350.8 316 338.08 295.92 322.56 345.12 293.08 247.32 205.6 232.2 231.8 204.24 98.84 83.36 84.56 85.52 81.8 89.12 110.48 151.8 186.76 159.56 133.64 160.08 212.92 276.08 275.28 265.6 268.04 280.92 325.48 324.84 314 302.44 304.88 342.08 356 422.24 456.96 466.72 484.92 498.84 470.64 393.32 443.68 541.12 646.8 706.88 781.96 1024.4 601.12 828.68 749.16 570.6 570.36 494.56 484.44 742.04 972.36 1396.88 1676.72 1193.48 1300.48 1205.72 1059.72 1110.04 988.76 1021.44 990.6 978.44 1067.72 994.92 1034.32 1105.72 1102.08 1108.68 1093.12 1051.48 912.64 828.52 855.307692307692 -9999 -9999 -9999 -9999 -9999 -9999 -9999 -9999
-9999 108.4 174.76 154.48 143.76 157.92 167.16 186.24 213.04 227.04 160.04 168.28 208.72 227.88 208.24 194.6 287.96 313.64 288.92 391.84 454.76 377 422.04 469.28 386.56 323.68 297.92 275.48 341.72 298 323.84 364.56 337.76 248 90.64 201.24 236.6 262.08 275.04 328.48 352.16 284.24 226.28 220.72 228.04 192.16 121.48 93.6 65.52 90.6 111.28 134.28 124.48 149.16 177.08 232.12 249.96 208.92 211.72 173.84 231.88 237.64 228.44 219.04 278.6 431.2 366.24 294.76 301.24 357.6 364.36 394.08 447.48 505.2 572.6 640.48 779.64 730.52 459.92 473 544.24 854.76 1058.44 1109.44 1136.28 1066.88 1142.92 836.44 702.04 637.04 631.36 509.48 588.2 1044.4 1253.32 1490.76 1053.12 1067.84 1006.72 930.4 990.28 900.24 888.8 896.32 914.2 976.64 964.36 1018.6 1067.72 1113.72 1140.32 998.44 1072.88 959.2 1066.44 1040.5 -9999 -9999 -9999 -9999 -9999 -9999 -9999 -9999
-9999 125.545454545455 131.88 118.76 152.28 172.56 182.44 198.2 220.96 196.4 135.4 145.68 172.12 242 161.88 199.4 267.6 334.12 388.6 371.12 319 287.4 413.8 391.48 387.92 345.8 303.64 259.72 259.2 294.32 275.08 285.2 309.76 280.68 117.4 91.04 159.28 153.84 174.24 244.56 243.32 191.2 102.64 84.52 78.68 73.48 68.52 63 109.12 124.72 144.04 159.2 155.36 157.68 195.92 232.56 264.28 280.64 261.08 187.6 177.04 196.48 216.56 261 277.16 340.92 355.84 339.64 313.72 373.12 403.6 417.84 476.8 567.8 692.2 952.32 1087.24 961.24 522.68 736.44 674.12 870.36 1072.56 1520.36 1660.44 1623.64 1054.96 831.6 807.88 739.28 843.16 648.8 544.4 628.32 801.92 1075.04 982.56 957.28 862.4 952.56 921.24 821.32 816.72 875.72 912.96 934.52 951.12 978.12 1024.28 1097.16 1181.28 1081.68 1088.88 1018.16 1055 1234.21428571429 -9999 -9999 -9999 -9999 -9999 -9999 -9999 -9999
85.3333333333333 87.2 94.44 118.24 150.04 176.12 201.48 219.96 226.76 170.36 118.64 113.48 203.8 256.88 177.92 220.84 277.28 315.36 336.52 305.56 264.12 297.8 373.88 381.68 302.8 368.36 291.32 257.8 255.88 188.8 201.76 254.84 321.84 295.44 239.28 73.04 86.64 77.68 140.16 185.48 141.56 71.84 44.08 44.6 43.72 58.2 77.08 91.96 101.36 147.76 166.32 179.36 182.92 178.12 195.48 228.12 270.48 294.28 247.72 201.4 194.16 237.24 301.08 263.4 262.72 319.88 325.68 298.68 326.84 407.68 480.72 485.76 472.32 568.36 698.92 885.44 783.16 754.56 713.32 769.16 844.28 790.08 971.6 1021.08 1354.36 1293.04 891.36 1121 1038.72 938.44 872.24 891.04 809.92 698.32 669.08 815.6 900.2 946.6 833.56 864.64 845.6 773.84 845.08 936.56 964.56 1058.16 1097.6 997.84 1001.2 1061.68 1231.88 1409.96 1318.16 1056.36 878 874.4 -9999 -9999 -9999 -9999 -9999 -9999 -9999 -9999
123.866666666667 144.8 163.6 179.32 163.8 209 227.76 223.2 241.88 197.44 153.4 116.32 207.24 161.12 146.76 237.56 291.64 306.2 329.04 290.56 231.96 287.56 367.88 333.16 298.12 248.48 225.04 218.8 261.28 244.16 157.16 182.56 200.4 139.28 114.48 57.6 47.92 31 48.56 68.2 49.88 36.28 50.32 75.28 89.68 99.84 122.84 132.48 109.16 97.72 146.6 180.44 190.36 201.16 229.6 272.92 270.52 230.76 313.96 274.8 206.08 251.68 327.12 393.4 351.16 284.32 348.44 427.12 383.08 404.84 456.56 509 541.84 579.56 645.48 819.52 1001.36 1060.88 1110.56 1005.76 1271.4 787.4 798 975.16 1187.24 983.68 1019.12 1145.08 1050.76 984.24 922.56 889.72 906.64 827.84 681.36 829.76 872.68 881.04 839.28 747.96 769.84 749.28 834.08 910.56 1098.2 1340.88 1250.56 1182.2 1186.64 1360 1662.36 1354 1152.28 984.24 778.92 826.133333333333 -9999 -9999 -9999 -9999 -9999 -9999 -9999 -9999
128.947368421053 197.24 200.84 219.04 207.96 219.72 198.72 173.64 168.8 154.44 134.2 106.92 160.76 100.56 150.08 251 259.28 218.72 278.72 225.2 232.72 332.48 372.44 292.32 249.28 219.48 193.08 180.4 177.52 154.24 96.6 99.76 75.92 40.92 19.4 18.2 23.48 30.4 28.84 34.44 51.56 74.56 98.24 97.52 119.24 126.16 113.8 141.32 152.76 135.6 104.52 154.12 198.68 225 222.08 217.76 204.72 210.52 309.52 311.24 262.2 281.64 336.48 442.08 420.12 434.32 450 483.76 470.56 407.08 445.08 512.68 729.56 850.96 678.24 737.48 1102.92 1201.48 1376.16 1056.92 1087.04 872.16 974.88 1083.32 1089.84 1092.16 1052.96 1064.08 1033.16 992.72 874.2 774.92 719.64 668.16 627.08 809.36 848.92 743.16 728.56 689.8 700.64 743.28 838.72 909.28 1011.68 1208.36 1332.56 1365.68 1418.32 1279.72 1161.44 1032 972.32 894.4 885.68 892.68 847.25 -9999 -9999 -9999 -9999 -9999 -9999 -9999
73.6666666666667 96.52 122.72 178.92 227.76 246.96 207.88 161.8 127.56 119.08 112.52 106.32 105.36 147 195.4 226.32 234.84 241.4 233.4 190.8 256.36 294.48 289.28 290 216.4 142.84 144.24 115.04 118.48 84.8 42.6 40 32.08 13.28 18.08 28.56 41.92 57.8 71.4 71.84 75.12 105.2 121.32 126.04 145.48 159.96 128.96 158.92 174.04 180.52 149.28 142.24 190 209.48 166.48 173.56 195.6 185.6 223.08 298.52 328.92 432.68 544.28 586.08 508.92 488.24 579.84 492.4 504.68 437.16 428.84 571.28 768.64 807.64 781.2 750.8 1024.04 1156.16 1361.72 1210.64 1191.68 1014.84 1057.6 1265.52 1138.36 1091.72 1046.96 996.48 966.48 928.84 899.24 917.48 693.6 629.08 630.32 743.28 737.36 682.52 894.8 688.6 702.36 766.16 844.08 917.36 987.2 1032.2 1099.24 1160.92 1127.68 1101.84 1060.72 1115.76 1123.8 1130.44 1073.68 944.4 816.578947368421 -9999 -9999 -9999 -9999 -9999 -9999 -9999
-9999 76.2608695652174 128.12 171.08 183.72 168.44 167.76 158.08 105.56 86.4 89.52 73.6 124.28 172.8 185.32 169.88 193.44 197.16 185.04 155.56 170.92 203.2 183.84 163.96 128.16 99.56 82.16 64.56 54.36 32.6 22.2 15.36 10.24 15.84 28.8 43.16 67.36 84.96 97.76 117.36 69.72 120.28 148.76 150.4 159.32 164.52 136.8 160.68 177.2 186.88 164.96 134.44 135.6 145.4 150.16 172.32 219.52 260.08 266.92 290.96 296.8 383 504.12 538.04 550.4 682.76 782.64 844.16 707.96 563.32 478.96 481.48 596.2 639.36 670.68 817.84 1196.28 1320.44 1320.52 1281.84 1174.12 1064.48 1249.12 1206.28 1081.16 1039.48 1041.32 1075.2 1062.6 1059.72 1050.6 989.56 763.88 743.92 653.08 661.92 723.08 776.04 958.24 750.04 722.12 793.64 902.96 997.16 1065.08 1070.92 1141.24 1217.04 1182.88 1103.56 1088.4 1115.12 1156.8 1047 997.68 926.88 935.96 974.75 -9999 -9999 -9999 -9999 -9999 -9999
-9999 89.1764705882353 147.88 169.16 138.12 115.88 124.8 153.36 133 98.96 99.12 61.12 114.64 125.4 122.24 124.04 128.76 132.88 132.44 100.52 115.44 135.24 126.84 87.12 69.72 63.56 63.56 50.84 73.76 42.8 19.56 6.28 9.96 22.92 31.24 52.6 74.36 100.12 145.48 140.16 61.12 106.2 145.28 148.84 169 165.08 142.8 171.92 207.12 208.52 143.2 128.52 140.48 156.28 148.4 173.44 206.04 238.2 269.68 336.52 361.16 322.24 383.64 416.6 518.36 923.32 1093.2 995.88 853.32 529.84 598.28 543.44 668.84 883.64 887.4 896.32 1176.44 1186.48 1234.12 1264.12 1070.2 1018.64 1060.52 1049.72 1008.52 1139.76 1191.36 1164.64 1091.2 1047.32 1160.84 875.4 795.68 843.12 824.04 806.24 935.68 1002.52 964.28 811.16 782.56 850.76 958.64 1088.56 1218.04 1226.24 1190.76 1203.52 1280.08 1163.6 1046.24 997.92 894.92 939.16 833.08 778.76 747.6 704.6 541.75 -9999 -9999 -9999 -9999 -9999
-9999 81.6363636363636 100.68 136.44 99.28 100.24 145.6 121.28 136.6 113.32 65.04 50.32 68.32 71.12 88.08 90.6 84.64 80.12 59.12 65.04 77.44 113.72 148.92 114.72 65.12 46.64 51.44 74.44 132.4 93.8 57.4 6.16 13.32 21.6 33.56 57.08 92.56 139.56 151.24 82.48 62.96 70.96 85.76 101.6 134.2 142.04 136 151.24 236.96 244.68 178.08 151.44 146.04 177.52 170.48 176.12 217.08 250.24 319.92 359.56 356.44 361.72 374.2 425.64 503.92 785 855.88 679.12 554.88 601.08 786.6 621.8 654.28 828.4 905.88 952.44 925.16 1030.32 1142 1012.04 1049.6 975.24 1024.8 981.92 949.92 1031.52 1061.96 1091 1027.68 960.6 911 794.52 908.36 953.72 998.8 1020.4 1061.64 1141.2 1160.96 896.64 833.12 896.56 985.6 1108.16 1262.88 1354.16 1259.24 1089.6 1065.6 953 832.64 749.32 726.8 748.72 623.24 548.96 514.76 450.44 392 300.75 -9999 -9999 -9999 -9999
-9999 72.3 113.08 122.88 106.24 79.2 103.88 85.32 124.96 76.12 34.32 24.72 35.16 55.72 53.12 40.72 54.36 44.16 72.48 112.8 129.32 148.12 148.88 105.68 95.76 63.96 34.96 131.2 141.36 107.92 94.08 9.8 15.92 23.76 38.32 76.16 123.56 151 86.68 68.48 80.68 81.12 79.52 87.68 103.28 140.28 142.2 142.28 163.08 168.48 159.64 159.04 170.36 192.96 192 174.84 194.36 238.52 299.12 308.24 341.92 380.48 438.56 508.52 570.96 725.44 720.68 718.44 738.56 691.84 726.92 798.44 787.4 963.76 997.36 886.12 843.44 888.64 996.64 902.8 937.24 1119.28 1007.64 893.12 898.24 1014.84 1095.2 1094.32 997.6 934.84 881.6 841.68 989.92 1068.8 1109.88 1177.16 1237.4 1363.6 1229.44 1019.92 919.28 943.72 993 1073.6 1101.24 1161.16 1153.24 1070.56 1002.68 887.2 719.2 613.56 560.28 620.6 541.6 428.12 366.8 338.84 325.92 269.583333333333 231.2 240.764705882353 141 -9999
-9999 66.7 78.68 98.04 81.52 57.4 46.16 47.72 73.68 49.36 23.56 9.52173913043478 22.68 23 18.92 16.84 26.24 86.08 123.6 121.88 126.36 141.56 125.96 117.84 92.04 81.84 48.52 114.16 105.6 82.28 68.28 8.08 14.24 24.04 44.92 99.68 113.12 75.08 62.96 60.56 73.08 89.28 100.04 96.84 102.76 101.48 128.84 139.56 145.6 147.76 174 199.8 182 221.72 231.76 231.76 252.24 212.64 307.04 260.68 311.4 345.44 453.56 599.12 621.4 596.24 645.04 946.2 1029.6 772.08 994.28 930.44 998.96 960.64 966.72 1024.16 931.88 848.84 1005.04 916.04 1021.08 1076.28 930.88 831.28 924.84 1019.04 1124.84 1287.72 1095.36 996.08 878.32 873.96 1022.68 1120.44 1186.64 1280.64 1479.72 1742.56 1646.2 1230.08 1044.44 1011.08 984.12 1000.68 975.44 901.6 834.84 803.52 806.96 686.8 552.08 477.16 443.24 474.56 396.36 314.64 287.36 359.28 419.72 290.16 178.48 210.12 68.0952380952381 20.6666666666667
-9999 24.3333333333333 51.64 49.2 56.08 45.72 21.64 19.64 48.16 35.92 14.28 15.3333333333333 15.08 10.7 32.48 53.08 93.72 116.92 99.28 101.52 90.6 113.76 107.8 92.32 83.96 53.04 52.6 70.52 61.32 45.28 28.08 6.8 33.68 63.68 55.64 57.64 48.88 48.92 52.2 59.76 67.76 84.4 103.28 107.72 112.44 112.76 133.88 145.4 150.92 152.24 167.32 206.28 219.24 236.68 292.72 308.16 291.16 258.56 264.44 258.92 326 344.96 413.56 480.84 477.64 517.96 862.64 859.6 806.96 731.88 752.16 918.28 943.52 914.16 1058.96 1043.28 948.68 881 988.52 901.76 957.04 804.88 829.48 1026.72 1211.52 1341.28 1435 1315.96 1113.76 1017.08 892 906.84 1055.56 1204.16 1377.4 1433.64 1703 1909.36 1754.84 1357.16 1180.76 1137.72 1050.08 923.64 850.52 760 690.32 615 562.24 507.72 471.08 423.16 379.08 330.72 289.68 240.56 250.68 377.56 486.32 253 135.84 151.04 13.5555555555556 -9999
-9999 14.25 28.92 32.52 25.8 40.72 14.8695652173913 15.9130434782609 42.32 30.12 8.35294117647059 14.0666666666667 7.73333333333333 43 68.72 82 100.8 102.08 89.8 68.32 68.44 79.48 81.6 68.6 53 35.64 34.2 37.08 38.56 22.28 8.76 9.4 36.12 53.12 58.72 41.48 48.36 51.44 57.44 71 79.6 87.04 108.12 127.04 141.44 126.48 136.52 157.92 163.92 165.88 181.8 228.6 245.04 296.12 406.44 429.76 332.52 308 349.64 276.52 398.76 426.48 396.28 407.28 456.12 555.96 590.8 684.96 712.24 642.64 822.04 851.88 818.56 944.04 1033.36 1200.6 927.96 848.72 705.72 720.24 722.48 759.44 960.12 1537.4 1619.2 1419.2 1351.6 1235.12 1070.48 969 894.52 904.88 1059.44 1191.32 1427.88 1587.32 1658.08 1874.52 1707.4 1552 1404.12 1327.72 1232.36 1127.68 1192.48 1208.12 1037.76 955.68 865.04 780.92 726.56 550.8 474.28 450.52 426.72 326.12 242.84 213.76 138.44 103.56 107.92 137.315789473684 -9999 -9999
-9999 9 2.08 1.85714285714286 7.75 26.4 11.5 7.16666666666667 25 21.3076923076923 6.9 4.66666666666667 20.7894736842105 36.12 47.28 60.28 69.52 80.28 79.68 73.28 57.36 47.6 44.48 41 30.84 20.12 15.8 25.64 20.44 6.16 3.32 13.44 31.72 45.52 56.6 64.2 58 56.68 60.44 66.52 88.36 101.24 121.16 148.52 163.36 146.96 176.04 170.64 185.28 188.84 245.44 276.76 257.48 347.84 556.56 634.48 447.28 361.72 388.52 346.92 369.32 379.44 420.2 400.04 407.52 501.04 446.84 530.28 692.84 594.04 779.04 782.8 857.96 864.76 851.36 912.8 735.08 766.72 648.56 665.4 668.48 802.36 1046.12 1343.72 1441.32 1423.2 1320.32 1212.28 1070 1077.4 1015.12 1013.08 1030.56 1123.56 1227.52 1356.52 1505.48 1666.84 1796.64 1804.32 1630.28 1600.68 1566.24 1428.6 1625.4 1599.72 1432.32 1324.8 1138.96 981.12 796.64 596.76 645.6 577.28 544.32 366.44 213 148.84 78 40.9 96.75 116 -9999 -9999
-9999 -9999 2.25 -9999 -9999 -9999 -9999 -9999 -9999 -9999 10 -9999 14.1333333333333 29.24 52.36 55.92 45.88 49.96 46.6 44.24 37.8 25.32 27.44 24.48 18.28 11.16 4.2 7.08 2.84 3.48 3.84 8.56 16.76 27.24 36.12 54.28 67.84 64.8 72.6 72 88.84 103.6 123.48 160.16 181.68 178.28 171.28 197.28 234.72 241.16 279.28 313.76 311.48 349.44 451.88 531.88 477.8 392.56 429.96 404.8 408.28 431.04 409.44 383.88 604.52 710.12 599.24 530.48 533.6 602.56 796.08 678.76 614.96 604.68 586.88 627.12 609.68 551.84 554.32 671.32 669.64 741.76 963.88 1257.76 1268.84 1377.96 1301.56 1484.32 1311.68 1191.4 1162.8 1094.48 1062.2 1084.76 1119.16 1172.36 1248.4 1391.84 1669.2 1894.68 1891.28 1873.92 1820.92 1733.08 1859.72 1586.12 1723.6 1591.68 1334.64 1072.88 933.88 866.68 847.16 710.16 512.08 370.32 214.4 104.96 67 30 6 -9999 -9999 -9999
-9999 -9999 -9999 -9999 -9999 -9999 -9999 -9999 -9999 -9999 -9999 -9999 -9999 29.625 49.304347826087 64.48 60.84 48.4 33.64 20.92 16.52 12.2 10.72 6.84 3.36 2.68 2.92 2.36 2 2.04 2.48 2.4 3.6 13.04 21.64 37.64 58.04 74.92 80.12 82.12 92.2 120.76 140.52 172.32 242.32 258.96 211.36 272.88 268.48 303.16 395.36 402.44 357.64 377.76 451.6 527.4 448.72 439.92 451.92 505.56 471.28 470.52 485.6 476.08 593.48 783.28 699.88 690.36 611.16 539.28 734.36 593.44 487 519.36 548.4 557.2 549.84 542.16 555.28 575.52 604.6 679 871.28 1022.68 1017.16 1193.12 1465.76 1650.96 1824.32 1491 1441.4 1162.48 1123.72 1135.96 1130.32 1127.28 1105.8 1085.84 1236.16 1396.48 1496 1750.4 1762.4 1711.84 1681.72 1589.2 1361.08 1258.12 1121.48 1054.32 894.12 845.08 794.72 677.56 589.32 556.72 261.08 99.68 37.88 7.53846153846154 -9999 -9999 -9999 -9999
-9999 -9999 -9999 -9999 -9999 -9999 -9999 -9999 -9999 -9999 -9999 -9999 -9999 -9999 -9999 53.3 63.695652173913 62.52 46.2 27.64 14.84 4.28 2.36 1.76 1.96 2 2.04 1.64 1.84 1.8 1.92 2.32 3.8 5.96 12.88 34.08 50.44 78.92 95.44 93.64 102 135.28 179 246.44 317.16 290.08 262.48 350.2 371.92 465.84 514.28 435.72 358.6 417.24 510.72 526.12 451.04 438.56 435.44 506.8 502.08 451.2 521.12 653.72 718.96 815.24 758.48 688.6 631.44 639.56 633.84 534.28 582.92 620.6 624.32 643.16 623.36 635.72 644.28 628.76 630.56 653 782.6 898.88 1084.2 1296.96 1562.6 1799.32 2051 1995.96 1577.12 1351.6 1318.52 1345.04 1350.08 1280.68 1182.92 1049.44 895.36 895.6 931.64 1025.08 1140.56 1191.08 1122.12 1060.2 896.68 911.08 799.16 817.6 690.52 571.44 544.04 536.12 456.12 356 193.12 69.76 28.6 19.7777777777778 -9999 -9999 -9999 -9999
-9999 -9999 -9999 -9999 -9999 -9999 -9999 -9999 -9999 -9999 -9999 -9999 -9999 -9999 -9999 -9999 50.6666666666667 48 44.52 36.04 25.36 9.88 1.76 1.84 1.88 1.88 1.56 1 1.56 1.76 1.32 1.8 4.96 8 13.04 32.16 52.6 78.68 96.6 116.2 135.2 154.6 220.64 258.56 320 364.96 379.64 392.64 362.36 508.08 516.36 440.96 363.12 449.64 498.92 490.12 442.32 411.84 469.4 472.56 451.08 426.12 523.2 620.92 591 730.72 736.76 782.76 672.88 1077.68 1107.68 888.32 712.44 771.4 747.56 773.84 756.56 723.08 796.32 734.88 711.4 700.4 795.44 1078.8 1401.64 1707.68 1681.84 1884.92 2448.96 2498.96 1873.52 1798.16 1758.32 1763 1875.88 1641.52 1574.88 1492.96 1082.2 1034.12 845.52 744.36 797.76 852.64 899.68 863.68 803.12 699.96 683.84 683 605.88 540.36 474.8 431.28 385.12 228.72 218.8 283.2 290.173913043478 27 -9999 -9999 -9999 -9999
-9999 -9999 -9999 -9999 -9999 -9999 -9999 -9999 -9999 -9999 -9999 -9999 -9999 -9999 -9999 -9999 -9999 -9999 36.5 35.5 31.16 16.8 1.96 1.32 1.24 1.04 1 1 0.95 0.95 1.32 1.72 2.28 6.72 16.56 36.32 58.64 80.68 95.04 139.8 162.24 212.08 262.48 260.2 339.28 390 435.32 515.28 428.88 429.92 524.4 503 539.52 574.4 533.16 480.4 448.76 422.24 425.96 445.48 411.52 422.16 467.68 551.72 553.4 736.88 744.28 856.36 934.08 1329.56 1424.32 1204.8 800.28 840.8 867.64 851.72 873.24 804.28 788.24 768.2 782 809.32 1008.2 1361.28 1714.92 2067.44 2473.56 2138.84 2802.72 2683.64 2612 2422.72 2304.36 2231.4 2134.08 2041.52 2122.28 2020.12 1817.52 1521.04 1212.96 996.6 743.2 709.6 676.12 655.68 611.12 499.24 496.36 533.96 555.56 523.12 468 400.92 347.96 429.08 548.36 609.32 204.666666666667 -9999 -9999 -9999 -9999 -9999
-9999 -9999 -9999 -9999 -9999 -9999 -9999 -9999 -9999 -9999 -9999 -9999 -9999 -9999 -9999 -9999 -9999 -9999 -9999 27 22.0909090909091 12.04 1.4 0.96 0.84 0.8 0.64 0.916666666666667 0.421052631578947 1.04 1.12 2.96 12.96 11.08 26.76 51.4 77.8 74.76 81.24 109.24 216.72 197.48 238.84 299.92 371.92 393.64 400.24 460.52 596.32 425.44 492.76 576.8 578.76 577.92 525.56 459.32 453.48 409.36 383.68 415.36 468.28 435.68 480.72 680.84 707.8 761.6 752.08 930.08 1087.12 1447.72 1345.2 1145.76 958.32 904.4 930.08 869.56 986.44 945.84 960.28 880.68 846.16 1013 1184.36 1446.04 1804.04 2482.76 2879.64 2840.36 2829.84 2340 2348.64 2157.36 1890.92 1899.28 1666.64 1695.48 1781.28 1806.12 1762.92 1408.48 1175 1011.32 700.48 614.28 518.56 484.92 421 419.72 550.76 585.8 617.4 554.96 506.56 507.4 340.6 388.04 360.24 337 162.6 -9999 -9999 -9999 -9999 -9999
-9999 -9999 -9999 -9999 -9999 -9999 -9999 -9999 -9999 -9999 -9999 -9999 -9999 -9999 -9999 -9999 -9999 -9999 -9999 -9999 10.3333333333333 7.86363636363636 1.56 1 0.96 1.04 0.28 0.647058823529412 0.84 1.04 3.28 12.4 23.36 30.8 70.84 106.08 94 84.32 115.48 124.24 290.2 308.56 282.68 325.96 324.6 329.08 420.36 540.04 708.68 540.04 490.64 590.6 534.44 462.28 479.6 481.44 463.8 404.8 482.76 559.6 640.08 610.76 626.52 719.68 727.16 683.52 939.64 1065.76 1007.24 1202.24 1185.64 1063.04 956.84 910.16 1001.44 914.44 1068.44 1193.72 1163.68 1057.96 930.04 789.36 938.4 1459.04 2070.08 2730.52 2421.92 2262.48 2296.72 2043.08 1808.24 1628.04 1364.76 1192.4 1082.28 1154.32 1192.24 1228.56 1142.04 851.36 628.76 541.16 420.2 440.44 419.32 313.8 384.92 658.64 868.48 981.32 946.88 701.72 489.28 351.16 245.6 217.6 181.28 71.5 50.6666666666667 -9999 -9999 -9999 -9999 -9999
-9999 -9999 -9999 -9999 -9999 -9999 -9999 -9999 -9999 -9999 -9999 -9999 -9999 -9999 -9999 -9999 -9999 -9999 -9999 -9999 -9999 10.5 5.625 0.96 0.916666666666667 0.8 0.4 1.05882352941176 0.96 20.72 16.88 14.24 25.24 52.72 106.44 125.88 119.68 134.08 148.08 151.56 206.72 231.28 279.64 386.36 336.16 356.48 451.84 503.76 619.44 648.32 638.76 821.48 627.76 530.52 421.68 419.76 396 513.8 567.16 590.8 898.04 1035 975.2 908.92 802.16 1018.08 1097.6 947 1022.12 1024.76 935.6 994.76 1045.32 1052.16 1025.6 949 930.08 1073.24 1234.48 1280.88 1036.44 836.56 786.08 1198.08 2035.56 2148.36 1890.56 2004.72 1707.96 1787.68 1473.24 1150.84 823.64 682.72 675.32 853.8 976.12 952.72 916.08 910.48 950.04 869.32 516.44 350.44 267.4 218.68 443.76 888.28 1038.8 880 699.8 429.72 283.2 211.56 198.48 201.96 114.24 75.2666666666667 -9999 -9999 -9999 -9999 -9999 -9999
-9999 -9999 -9999 -9999 -9999 -9999 -9999 -9999 -9999 -9999 -9999 -9999 -9999 -9999 -9999 -9999 -9999 -9999 -9999 -9999 -9999 -9999 9.13333333333333 1.83333333333333 0.818181818181818 1.21052631578947 3.61111111111111 19.2083333333333 3.32 19.76 25.16 33.76 45.84 78.52 103.92 154.84 144.2 136.52 155.8 159.56 171.24 373.96 370.16 559.84 576.52 409.52 467.8 531.6 739.2 746.2 746.24 716.6 506.08 527.68 547.28 415.48 397.68 696.64 588.64 501.24 731 712.48 575.04 695.24 654.8 757.8 637.04 522.16 493.56 572.6 683.32 907.6 1274.68 1119.2 1073.96 981.44 935.8 998.92 1167.96 1354.12 1092.16 800.16 614.64 853.64 1205.12 1252.2 1201.92 1334.44 1254.72 1156.8 988.52 865.96 693.8 561.52 710 904.28 1408.12 1709.44 1552.96 1421.44 1365.84 1237.92 1047.52 662.6 356.76 199.28 181.72 340.64 534.8 466.04 330.28 215.76 146.04 150.2 188.84 201.6 70.7619047619048 72.4 -9999 -9999 -9999 -9999 -9999 -9999
-9999 -9999 -9999 -9999 -9999 -9999 -9999 -9999 -9999 -9999 -9999 -9999 -9999 -9999 -9999 -9999 -9999 -9999 -9999 -9999 -9999 -9999 8.14285714285714 3.35 3.6 1.08 4.52 25.16 10.72 15.2 47.72 94.04 124.48 95.12 125.8 112.36 154.04 127.24 127.96 149.84 234.16 310.36 345.84 384.76 436.12 494.52 540.52 522.8 593.96 747.4 824.2 763.64 596.84 704.84 577.48 432.76 478.6 326.44 251.24 352.28 420.76 491.28 411.88 521.96 593.96 639.2 671.04 441.04 364.28 286.08 351.08 877.52 1476.52 1380.04 1487.96 1316.32 1096.64 1136.2 1235.76 1253.6 1070.6 1043.72 875.08 534.08 478 460.52 500.72 769.92 789.64 938.36 1080.68 1082.16 921.92 606.12 628.32 687.64 1287.96 1935.92 1994.28 1662.72 1339.64 1257.76 1050.72 893.8 573.44 416.84 108.08 162.24 194.92 207.88 178.96 123.92 136.04 200.36 243.92 174.809523809524 163 -9999 -9999 -9999 -9999 -9999 -9999 -9999
-9999 -9999 -9999 -9999 -9999 -9999 -9999 -9999 -9999 -9999 -9999 -9999 -9999 -9999 -9999 -9999 -9999 -9999 -9999 -9999 -9999 -9999 -9999 8 1.13333333333333 4.64 20.56 18.44 14.44 36.32 50.52 153 202.4 130.16 108.76 143.24 186.56 106.72 137.56 159.76 297.4 407.4 507.76 452.16 401.68 630.8 712.64 753.16 717.56 769.32 851.12 858.72 768.08 767.56 544.12 721.44 517.68 465.48 174.28 230.52 434.16 487 353.84 520.68 599.48 784.12 639.12 450.24 334.28 302.32 224.04 401.96 610.4 727.16 920.88 1166.48 1341.68 1324.36 1110.88 1124 940.52 672.92 820.08 594.96 456.52 876.92 917.36 897.76 1025 1146.72 1092.76 1147.68 919.2 670.52 475.68 444.6 772.24 1485.52 1625.48 1457.96 906.04 751.16 623.28 697.6 542.16 253.12 71.6 61.72 76.0454545454545 90.04 87 100.8 134.68 177 184.2 71.1764705882353 -9999 -9999 -9999 -9999 -9999 -9999 -9999 -9999
-9999 -9999 -9999 -9999 -9999 -9999 -9999 -9999 -9999 -9999 -9999 -9999 -9999 -9999 -9999 -9999 -9999 -9999 -9999 -9999 -9999 -9999 7 25.4615384615385 20.5 16.08 30.72 14.68 27.68 45.32 46.16 74.44 87.44 82.44 75.44 93.44 184.2 120 134.76 221.8 389.16 397.6 823.56 850.28 755.24 464.6 640.72 771.28 795.68 696.16 853.44 1003.8 961.68 631.8 555.32 735.48 386.72 243.2 178.52 341.48 471.64 347.76 263.76 349.56 406.28 723.44 685.08 653.32 339.72 154.64 143.16 345.4 464.24 513.92 564.8 654.56 808.72 1338.76 878.88 616.72 607.44 749.44 387.08 289.12 783.52 1400.2 1040.56 1026.96 1067.72 776.48 759.84 846.8 908.32 546.8 266.88 346.04 512 495.6 671.12 522.28 456.08 327.04 208.2 182.090909090909 225.555555555556 111 14.4 4.66666666666667 -9999 22.1111111111111 29.1739130434783 48.6 93.92 199.48 174.882352941176 -9999 -9999 -9999 -9999 -9999 -9999 -9999 -9999 -9999
-9999 -9999 -9999 -9999 -9999 -9999 -9999 -9999 -9999 -9999 -9999 -9999 -9999 -9999 -9999 -9999 -9999 -9999 -9999 -9999 -9999 -9999 11.9 36.36 28.36 30.2 27.32 43.36 51.76 29.32 31.28 59.16 70.4 67.04 110.16 95.4 203.8 196.52 174.88 223.04 297 403.72 697.84 1054.76 946.04 752.08 774.56 642.12 576.52 726.52 948.52 1158.68 805.6 701.72 1020.72 563.32 263.48 160.36 170.48 264.64 240.04 163.76 138.4 321.84 237.8 430.76 494.56 481.4 390.32 253.6 97.84 82.24 223.4 306.08 338.04 210.44 405.08 544.24 514.12 375.36 353.88 329.6 240.36 304.84 419.92 735.96 490.68 609.24 704.8 564.96 415.56 466.76 573.4 521.68 190.88 361.68 445.44 271.48 126.56 111.48 125.16 111.24 41.96 21.25 -9999 -9999 -9999 -9999 -9999 -9999 2.875 48.4 214.08 93.4 141.142857142857 -9999 -9999 -9999 -9999 -9999 -9999 -9999 -9999 -9999
-9999 -9999 -9999 -9999 -9999 -9999 -9999 -9999 -9999 -9999 -9999 -9999 -9999 -9999 -9999 -9999 -9999 -9999 -9999 -9999 -9999 -9999 20.5882352941176 35.44 25.28 40.96 56.92 39.72 48.6 19.68 58.6 94.44 67.72 62.92 68.6 103.12 197.56 200.64 226.76 296.08 268.04 366.72 462.64 999.4 1043.4 906.76 916 619.6 669.4 765.6 1057.64 1148.56 1173.76 804.32 555.12 342.2 231 167.2 69.24 92.08 58.2 54.76 92.8 131.8 74.5416666666667 172.8 182.04 219.76 219.2 136.4 103.619047619048 16.7857142857143 66.1 130.692307692308 162.222222222222 111 119.428571428571 272.428571428571 234.071428571429 205.157894736842 131.923076923077 284.3 32.8333333333333 66.04 146.56 482.2 254.8 246 231.545454545455 287.8 184.5 203.777777777778 277.571428571429 169.3 64.4 32.2 86.2 73.875 66.88 51.16 53.84 38.76 19.4285714285714 -9999 -9999 -9999 -9999 -9999 -9999 -9999 -9999 141.333333333333 161.571428571429 45.6 -9999 -9999 -9999 -9999 -9999 -9999 -9999 -9999 -9999 -9999
-9999 -9999 -9999 -9999 -9999 -9999 -9999 -9999 -9999 -9999 -9999 -9999 -9999 -9999 -9999 -9999 -9999 -9999 -9999 -9999 -9999 -9999 18 30.64 20.52 39.36 39.72 23.8 35.6 30.04 77.04 73.44 57.24 46.24 59.04 120.12 125.76 161.4 240.32 338.8 309.96 382.72 500.72 939.16 874.28 1016.16 764.56 950.72 1031.8 1013.96 1102.88 1426.12 1490.44 728.96 352.32 234.76 166.56 111.48 103.88 116.68 179.64 37.72 14.08 20.56 9.4 -9999 64 58.6 56.4 34.8 -9999 -9999 -9999 -9999 -9999 -9999 -9999 -9999 -9999 -9999 -9999 -9999 -9999 -9999 98.2666666666667 153.444444444444 215.142857142857 -9999 -9999 -9999 -9999 -9999 -9999 -9999 -9999 -9999 -9999 45.1111111111111 37.8 53.625 31.48 18.9473684210526 0.5 -9999 -9999 -9999 -9999 -9999 -9999 -9999 -9999 -9999 -9999 -9999 -9999 -9999 -9999 -9999 -9999 -9999 -9999 -9999 -9999 -9999
-9999 -9999 -9999 -9999 -9999 -9999 -9999 -9999 -9999 -9999 -9999 -9999 -9999 -9999 -9999 -9999 -9999 -9999 -9999 -9999 -9999 -9999 -9999 21.6666666666667 15.0625 33.125 30.28 27.16 13.76 19.92 21.2 27.4 30.96 68.04 82.56 129.2 157.04 130.28 167.12 261.6 301.96 469.72 392.6 666.52 1073.16 778.48 665.12 849.48 1059.48 885.36 1141.92 1093.24 864.36 679.4 573.48 349.52 267.12 198.84 142.92 187.12 158.56 134.04 87.28 6.30769230769231 -9999 -9999 -9999 -9999 -9999 -9999 -9999 -9999 -9999 -9999 -9999 -9999 -9999 -9999 -9999 -9999 -9999 -9999 -9999 -9999 -9999 -9999 -9999 -9999 -9999 -9999 -9999 -9999 -9999 -9999 -9999 -9999 -9999 -9999 -9999 -9999 -9999 -9999 -9999 -9999 -9999 -9999 -9999 -9999 -9999 -9999 -9999 -9999 -9999 -9999 -9999 -9999 -9999 -9999 -9999 -9999 -9999 -9999 -9999 -9999
-9999 -9999 -9999 -9999 -9999 -9999 -9999 -9999 -9999 -9999 -9999 -9999 -9999 -9999 -9999 -9999 -9999 -9999 -9999 -9999 -9999 -9999 -9999 -9999 -9999 28.625 5.26315789473684 2.4 27.6 55.84 67.76 56.72 47.6 82.64 131.16 228.72 291.96 346.32 209.84 248.88 365.52 580.8 586.52 702.56 853.84 514.08 724.08 490.48 659.56 823.16 1014.28 894.4 875.8 506.2 618.6 476.48 483.96 350.44 357.24 714.8 577.76 421.84 129.818181818182 5 -9999 -9999 -9999 -9999 -9999 -9999 -9999 -9999 -9999 -9999 -9999 -9999 -9999 -9999 -9999 -9999 -9999 -9999 -9999 -9999 -9999 -9999 -9999 -9999 -9999 -9999 -9999 -9999 -9999 -9999 -9999 -9999 -9999 -9999 -9999 -9999 -9999 -9999 -9999 -9999 -9999 -9999 -9999 -9999 -9999 -9999 -9999 -9999 -9999 -9999 -9999 -9999 -9999 -9999 -9999 -9999 -9999 -9999 -9999 -9999
-9999 -9999 -9999 -9999 -9999 -9999 -9999 -9999 -9999 -9999 -9999 -9999 -9999 -9999 -9999 -9999 -9999 -9999 -9999 -9999 -9999 -9999 -9999 -9999 -9999 -9999 3.92857142857143 8.4 25.64 63.44 81.28 85.96 66.64 88.56 177.44 248.76 296.72 276.76 312.8 452.36 523.4 439.52 653 648.92 527.16 551.04 581.56 570.76 891.04 745.96 732.72 735.56 393.92 517.32 856.16 545.96 605.48 290.04 156.36 267.52 287.086956521739 183.8 58.75 -9999 -9999 -9999 -9999 -9999 -9999 -9999 -9999 -9999 -9999 -9999 -9999 -9999 -9999 -9999 -9999 -9999 -9999 -9999 -9999 -9999 -9999 -9999 -9999 -9999 -9999 -9999 -9999 -9999 -9999 -9999 -9999 -9999 -9999 -9999 -9999 -9999 -9999 -9999 -9999 -9999 -9999 -9999 -9999 -9999 -9999 -9999 -9999 -9999 -9999 -9999 -9999 -9999 -9999 -9999 -9999 -9999 -9999 -9999 -9999 -9999
-9999 -9999 -9999 -9999 -9999 -9999 -9999 -9999 -9999 -9999 -9999 -9999 -9999 -9999 -9999 -9999 -9999 -9999 -9999 -9999 -9999 -9999 -9999 -9999 4 7.5 5.25 13.7894736842105 52.08 67.48 87.08 109.88 82.56 75.24 136.64 128.28 197.36 252.96 494.2 688.84 397.4 408.92 680.84 371.64 439 582.08 379.04 575.4 830.92 553.76 393.56 358.88 213.56 410.16 452.8 254.28 315.84 229.16 77.28 47.24 24.3333333333333 -9999 -9999 -9999 -9999 -9999 -9999 -9999 -9999 -9999 -9999 -9999 -9999 -9999 -9999 -9999 -9999 -9999 -9999 -9999 -9999 -9999 -9999 -9999 -9999 -9999 -9999 -9999 -9999 -9999 -9999 -9999 -9999 -9999 -9999 -9999 -9999 -9999 -9999 -9999 -9999 -9999 -9999 -9999 -9999 -9999 -9999 -9999 -9999 -9999 -9999 -9999 -9999 -9999 -9999 -9999 -9999 -9999 -9999 -9999 -9999 -9999 -9999 -9999
-9999 -9999 -9999 -9999 -9999 -9999 -9999 -9999 -9999 -9999 -9999 -9999 -9999 -9999 -9999 -9999 -9999 -9999 -9999 -9999 -9999 -9999 -9999 -9999 -9999 1.5 10.2 3.28 32 66.2 80.92 99.04 97.28 81.72 104.04 97.88 152.44 181.48 451.48 725.48 380.68 366.44 497.08 206.56 368.52 257.08 443.96 902.36 633.48 355.44 201.4 139.28 67.76 56.4 62.7 61.5454545454545 81.25 131.571428571429 75.6315789473684 52.5555555555556 -9999 -9999 -9999 -9999 -9999 -9999 -9999 -9999 -9999 -9999 -9999 -9999 -9999 -9999 -9999 -9999 -9999 -9999 -9999 -9999 -9999 -9999 -9999 -9999 -9999 -9999 -9999 -9999 -9999 -9999 -9999 -9999 -9999 -9999 -9999 -9999 -9999 -9999 -9999 -9999 -9999 -9999 -9999 -9999 -9999 -9999 -9999 -9999 -9999 -9999 -9999 -9999 -9999 -9999 -9999 -9999 -9999 -9999 -9999 -9999 -9999 -9999 -9999 -9999
-9999 -9999 -9999 -9999 -9999 -9999 -9999 -9999 -9999 -9999 -9999 -9999 -9999 -9999 -9999 -9999 -9999 -9999 -9999 -9999 -9999 -9999 -9999 -9999 -9999 2 4.75 7.24 40 60.8 59.6 80.68 115.84 88.12 87.16 87.2 102.2 141.24 220.68 423.6 349.04 266.12 189.64 68.6 150.6 208.32 509.12 596.88 300.24 107.32 58.8095238095238 30.3333333333333 16.6 -9999 -9999 -9999 -9999 -9999 -9999 -9999 -9999 -9999 -9999 -9999 -9999 -9999 -9999 -9999 -9999 -9999 -9999 -9999 -9999 -9999 -9999 -9999 -9999 -9999 -9999 -9999 -9999 -9999 -9999 -9999 -9999 -9999 -9999 -9999 -9999 -9999 -9999 -9999 -9999 -9999 -9999 -9999 -9999 -9999 -9999 -9999 -9999 -9999 -9999 -9999 -9999 -9999 -9999 -9999 -9999 -9999 -9999 -9999 -9999 -9999 -9999 -9999 -9999 -9999 -9999 -9999 -9999 -9999 -9999 -9999
-9999 -9999 -9999 -9999 -9999 -9999 -9999 -9999 -9999 -9999 -9999 -9999 -9999 -9999 -9999 -9999 -9999 -9999 -9999 -9999 -9999 -9999 -9999 -9999 -9999 -9999 2.46153846153846 19.12 24.32 27 80.44 114.56 95.68 82.96 80.56 61.32 55.32 50.84 123.32 332.76 378.16 374 124.84 63.68 117.32 118.04 232.68 120.92 46.0588235294118 21.4285714285714 -9999 -9999 -9999 -9999 -9999 -9999 -9999 -9999 -9999 -9999 -9999 -9999 -9999 -9999 -9999 -9999 -9999 -9999 -9999 -9999 -9999 -9999 -9999 -9999 -9999 -9999 -9999 -9999 -9999 -9999 -9999 -9999 -9999 -9999 -9999 -9999 -9999 -9999 -9999 -9999 -9999 -9999 -9999 -9999 -9999 -9999 -9999 -9999 -9999 -9999 -9999 -9999 -9999 -9999 -9999 -9999 -9999 -9999 -9999 -9999 -9999 -9999 -9999 -9999 -9999 -9999 -9999 -9999 -9999 -9999 -9999 -9999 -9999 -9999
-9999 -9999 -9999 -9999 -9999 -9999 -9999 -9999 -9999 -9999 -9999 -9999 -9999 -9999 -9999 -9999 -9999 -9999 -9999 -9999 -9999 -9999 -9999 -9999 -9999 -9999 12 19.1666666666667 36.16 62.88 73.84 99.96 104.44 60.2 54.4 29.08 45.92 63.64 136 356.36 323.96 275.36 132.96 89.72 121.48 110.68 150.72 52.6428571428571 -9999 -9999 -9999 -9999 -9999 -9999 -9999 -9999 -9999 -9999 -9999 -9999 -9999 -9999 -9999 -9999 -9999 -9999 -9999 -9999 -9999 -9999 -9999 -9999 -9999 -9999 -9999 -9999 -9999 -9999 -9999 -9999 -9999 -9999 -9999 -9999 -9999 -9999 -9999 -9999 -9999 -9999 -9999 -9999 -9999 -9999 -9999 -9999 -9999 -9999 -9999 -9999 -9999 -9999 -9999 -9999 -9999 -9999 -9999 -9999 -9999 -9999 -9999 -9999 -9999 -9999 -9999 -9999 -9999 -9999 -9999 -9999 -9999 -9999 -9999 -9999
-9999 -9999 -9999 -9999 -9999 -9999 -9999 -9999 -9999 -9999 -9999 -9999 -9999 -9999 -9999 -9999 -9999 -9999 -9999 -9999 -9999 -9999 -9999 -9999 -9999 -9999 -9999 23.4444444444444 41.96 66.88 53.08 51.16 62.4 64.6 62.84 27.28 171.16 203.96 183.4 329.72 380 206.44 106.4 65.8 71.48 79.64 106.625 12 -9999 -9999 -9999 -9999 -9999 -9999 -9999 -9999 -9999 -9999 -9999 -9999 -9999 -9999 -9999 -9999 -9999 -9999 -9999 -9999 -9999 -9999 -9999 -9999 -9999 -9999 -9999 -9999 -9999 -9999 -9999 -9999 -9999 -9999 -9999 -9999 -9999 -9999 -9999 -9999 -9999 -9999 -9999 -9999 -9999 -9999 -9999 -9999 -9999 -9999 -9999 -9999 -9999 -9999 -9999 -9999 -9999 -9999 -9999 -9999 -9999 -9999 -9999 -9999 -9999 -9999 -9999 -9999 -9999 -9999 -9999 -9999 -9999 -9999 -9999 -9999
-9999 -9999 -9999 -9999 -9999 -9999 -9999 -9999 -9999 -9999 -9999 -9999 -9999 -9999 -9999 -9999 -9999 -9999 -9999 -9999 -9999 -9999 -9999 -9999 -9999 -9999 -9999 -9999 37.7777777777778 25.24 100.72 89.56 53.44 24.8 15.56 47.76 114.76 192.72 230.12 204.36 303.68 180.36 103.48 97.88 113.36 41.16 69.5384615384615 -9999 -9999 -9999 -9999 -9999 -9999 -9999 -9999 -9999 -9999 -9999 -9999 -9999 -9999 -9999 -9999 -9999 -9999 -9999 -9999 -9999 -9999 -9999 -9999 -9999 -9999 -9999 -9999 -9999 -9999 -9999 -9999 -9999 -9999 -9999 -9999 -9999 -9999 -9999 -9999 -9999 -9999 -9999 -9999 -9999 -9999 -9999 -9999 -9999 -9999 -9999 -9999 -9999 -9999 -9999 -9999 -9999 -9999 -9999 -9999 -9999 -9999 -9999 -9999 -9999 -9999 -9999 -9999 -9999 -9999 -9999 -9999 -9999 -9999 -9999 -9999 -9999
-9999 -9999 -9999 -9999 -9999 -9999 -9999 -9999 -9999 -9999 -9999 -9999 -9999 -9999 -9999 -9999 -9999 -9999 -9999 -9999 -9999 -9999 -9999 -9999 -9999 -9999 -9999 -9999 -9999 21.2 70.84 69.48 27.12 9.52 8.92 27.28 169.12 302.36 340.4 161.8 272.76 280.8 97.12 93.92 135.84 37.9047619047619 2 -9999 -9999 -9999 -9999 -9999 -9999 -9999 -9999 -9999 -9999 -9999 -9999 -9999 -9999 -9999 -9999 -9999 -9999 -9999 -9999 -9999 -9999 -9999 -9999 -9999 -9999 -9999 -9999 -9999 -9999 -9999 -9999 -9999 -9999 -9999 -9999 -9999 -9999 -9999 -9999 -9999 -9999 -9999 -9999 -9999 -9999 -9999 -9999 -9999 -9999 -9999 -9999 -9999 -9999 -9999 -9999 -9999 -9999 -9999 -9999 -9999 -9999 -9999 -9999 -9999 -9999 -9999 -9999 -9999 -9999 -9999 -9999 -9999 -9999 -9999 -9999 -9999
-9999 -9999 -9999 -9999 -9999 -9999 -9999 -9999 -9999 -9999 -9999 -9999 -9999 -9999 -9999 -9999 -9999 -9999 -9999 -9999 -9999 -9999 -9999 -9999 -9999 -9999 -9999 -9999 -9999 18.5 74.48 97.44 8.64 21.12 52.72 11.24 73.48 207.92 327.32 167.56 101.4 131.24 44.68 57.32 126.64 52.4 -9999 -9999 -9999 -9999 -9999 -9999 -9999 -9999 -9999 -9999 -9999 -9999 -9999 -9999 -9999 -9999 -9999 -9999 -9999 -9999 -9999 -9999 -9999 -9999 -9999 -9999 -9999 -9999 -9999 -9999 -9999 -9999 -9999 -9999 -9999 -9999 -9999 -9999 -9999 -9999 -9999 -9999 -9999 -9999 -9999 -9999 -9999 -9999 -9999 -9999 -9999 -9999 -9999 -9999 -9999 -9999 -9999 -9999 -9999 -9999 -9999 -9999 -9999 -9999 -9999 -9999 -9999 -9999 -9999 -9999 -9999 -9999 -9999 -9999 -9999 -9999 -9999 -9999
-9999 -9999 -9999 -9999 -9999 -9999 -9999 -9999 -9999 -9999 -9999 -9999 -9999 -9999 -9999 -9999 -9999 -9999 -9999 -9999 -9999 -9999 -9999 -9999 -9999 -9999 -9999 -9999 -9999 -9999 110.428571428571 110.555555555556 8.55555555555556 110.272727272727 130.56 18.44 18.16 115.32 409.48 312.28 102.28 44.76 27.0833333333333 27.3157894736842 57.1363636363636 -9999 -9999 -9999 -9999 -9999 -9999 -9999 -9999 -9999 -9999 -9999 -9999 -9999 -9999 -9999 -9999 -9999 -9999 -9999 -9999 -9999 -9999 -9999 -9999 -9999 -9999 -9999 -9999 -9999 -9999 -9999 -9999 -9999 -9999 -9999 -9999 -9999 -9999 -9999 -9999 -9999 -9999 -9999 -9999 -9999 -9999 -9999 -9999 -9999 -9999 -9999 -9999 -9999 -9999 -9999 -9999 -9999 -9999 -9999 -9999 -9999 -9999 -9999 -9999 -9999 -9999 -9999 -9999 -9999 -9999 -9999 -9999 -9999 -9999 -9999 -9999 -9999 -9999 -9999
-9999 -9999 -9999 -9999 -9999 -9999 -9999 -9999 -9999 -9999 -9999 -9999 -9999 -9999 -9999 -9999 -9999 -9999 -9999 -9999 -9999 -9999 -9999 -9999 -9999 -9999 -9999 -9999 -9999 -9999 -9999 -9999 -9999 149.8 41.8333333333333 93.16 68.4 128.04 232.92 298.76 368.12 38.64 20.8333333333333 -9999 5.5 -9999 -9999 -9999 -9999 -9999 -9999 -9999 -9999 -9999 -9999 -9999 -9999 -9999 -9999 -9999 -9999 -9999 -9999 -9999 -9999 -9999 -9999 -9999 -9999 -9999 -9999 -9999 -9999 -9999 -9999 -9999 -9999 -9999 -9999 -9999 -9999 -9999 -9999 -9999 -9999 -9999 -9999 -9999 -9999 -9999 -9999 -9999 -9999 -9999 -9999 -9999 -9999 -9999 -9999 -9999 -9999 -9999 -9999 -9999 -9999 -9999 -9999 -9999 -9999 -9999 -9999 -9999 -9999 -9999 -9999 -9999 -9999 -9999 -9999 -9999 -9999 -9999 -9999 -9999
-9999 -9999 -9999 -9999 -9999 -9999 -9999 -9999 -9999 -9999 -9999 -9999 -9999 -9999 -9999 -9999 -9999 -9999 -9999 -9999 -9999 -9999 -9999 -9999 -9999 -9999 -9999 -9999 -9999 -9999 -9999 -9999 -9999 -9999 119.384615384615 157.04 108.96 279.4 208.2 421.6 549.64 193.12 29.0769230769231 -9999 -9999 -9999 -9999 -9999 -9999 -9999 -9999 -9999 -9999 -9999 -9999 -9999 -9999 -9999 -9999 -9999 -9999 -9999 -9999 -9999 -9999 -9999 -9999 -9999 -9999 -9999 -9999 -9999 -9999 -9999 -9999 -9999 -9999 -9999 -9999 -9999 -9999 -9999 -9999 -9999 -9999 -9999 -9999 -9999 -9999 -9999 -9999 -9999 -9999 -9999 -9999 -9999 -9999 -9999 -9999 -9999 -9999 -9999 -9999 -9999 -9999 -9999 -9999 -9999 -9999 -9999 -9999 -9999 -9999 -9999 -9999 -9999 -9999 -9999 -9999 -9999 -9999 -9999 -9999 -9999
-9999 -9999 -9999 -9999 -9999 -9999 -9999 -9999 -9999 -9999 -9999 -9999 -9999 -9999 -9999 -9999 -9999 -9999 -9999 -9999 -9999 -9999 -9999 -9999 -9999 -9999 -9999 -9999 -9999 -9999 -9999 -9999 -9999 -9999 39 64 163.857142857143 201.133333333333 49.625 223.16 395.84 172.6 89.2857142857143 -9999 -9999 -9999 -9999 -9999 -9999 -9999 -9999 -9999 -9999 -9999 -9999 -9999 -9999 -9999 -9999 -9999 -9999 -9999 -9999 -9999 -9999 -9999 -9999 -9999 -9999 -9999 -9999 -9999 -9999 -9999 -9999 -9999 -9999 -9999 -9999 -9999 -9999 -9999 -9999 -9999 -9999 -9999 -9999 -9999 -9999 -9999 -9999 -9999 -9999 -9999 -9999 -9999 -9999 -9999 -9999 -9999 -9999 -9999 -9999 -9999 -9999 -9999 -9999 -9999 -9999 -9999 -9999 -9999 -9999 -9999 -9999 -9999 -9999 -9999 -9999 -9999 -9999 -9999 -9999 -9999
-9999 -9999 -9999 -9999 -9999 -9999 -9999 -9999 -9999 -9999 -9999 -9999 -9999 -9999 -9999 -9999 -9999 -9999 -9999 -9999 -9999 -9999 -9999 -9999 -9999 -9999 -9999 -9999 -9999 -9999 -9999 -9999 -9999 -9999 -9999 -9999 -9999 -9999 22.7777777777778 133.25 174.7 91.5 -9999 -9999 -9999 -9999 -9999 -9999 -9999 -9999 -9999 -9999 -9999 -9999 -9999 -9999 -9999 -9999 -9999 -9999 -9999 -9999 -9999 -9999 -9999 -9999 -9999 -9999 -9999 -9999 -9999 -9999 -9999 -9999 -9999 -9999 -9999 -9999 -9999 -9999 -9999 -9999 -9999 -9999 -9999 -9999 -9999 -9999 -9999 -9999 -9999 -9999 -9999 -9999 -9999 -9999 -9999 -9999 -9999 -9999 -9999 -9999 -9999 -9999 -9999 -9999 -9999 -9999 -9999 -9999 -9999 -9999 -9999 -9999 -9999 -9999 -9999 -9999 -9999 -9999 -9999 -9999 -9999 -9999
